# .PCD v0.7 - Point Cloud Data file format
VERSION 0.7
FIELDS x y z intensity
SIZE 4 4 4 4
TYPE F F F F
COUNT 1 1 1 1
WIDTH 1410
HEIGHT 1
VIEWPOINT 0 0 0 1 0 0 0
POINTS 1410
DATA ascii
-62.579334 -19.986616 345.06854 3
-55.789619 -19.653894 346.13416 6
-55.960075 -18.771475 346.17624 8
-55.812691 -18.389677 346.21249 9
-62.539223 -20.272495 345.37521 2
-62.65868 -20.008921 345.23291 3
-55.648895 -19.225344 346.39084 7
-62.757553 -20.477734 345.50757 1
-71.886635 -19.573597 344.3053 5.5
-71.888435 -19.370932 344.31393 7
-71.93338 -19.222191 344.30121 8
-62.648689 -20.328379 345.7002 2
-62.707184 -20.099545 345.71698 3
-71.948563 -20.114098 344.452 3
-71.931915 -19.758511 344.51065 5
-71.996506 -19.066017 344.51352 9
-62.687355 -20.56686 345.8154 1
-62.76284 -19.899944 345.83896 4
-71.93705 -19.594349 344.63858 6
-71.874657 -19.421307 344.73703 7
-55.752533 -19.28627 346.94525 7
-71.946434 -19.251549 344.79895 8
-72.110649 -20.950098 344.81897 0
-74.021843 -20.70295 344.57684 2
-63.187904 -20.545984 346.04868 1
-62.772449 -19.938951 346.04108 4
-56.057106 -19.767464 347.13931 6
-62.94202 -19.505009 346.17868 6
-62.879631 -19.248907 346.15839 7
-62.94799 -19.097591 346.13202 8
-73.194588 -20.614487 344.78864 2
-72.146637 -20.587585 344.86334 1
-63.138153 -20.365555 346.1413 2
-62.814777 -20.425045 346.21039 2
-74.11869 -20.237028 344.65573 4
-63.184391 -20.138212 346.13577 3
-62.813747 -20.189615 346.19803 3
-62.940536 -19.974417 346.293 4
-62.890301 -19.766504 346.37189 5
-56.175514 -19.321978 347.27698 7
-56.135689 -18.882311 347.27448 8
-56.005672 -19.819168 347.53204 6
-62.912613 -19.530872 346.61932 6
-62.93956 -19.369295 346.54132 7
-62.982082 -19.136814 346.49435 8
-72.254517 -20.730631 345.36575 1
-72.294067 -20.541975 345.41879 2
-72.255676 -20.292278 345.30344 3
-72.295448 -20.092901 345.34964 4
-72.364235 -20.902489 345.95673 1
-62.967381 -20.58951 347.19424 2
-62.903664 -20.424343 347.28262 3
-62.836849 -20.168179 347.5835 4
-56.166222 -19.919735 348.35245 6
-56.157516 -19.447884 348.40231 7
-56.338684 -19.014046 348.57852 8
-62.829437 -20.742313 347.73236 2
-62.894081 -20.520592 347.68604 3
-62.922157 -20.774809 347.89359 2
-62.931412 -20.50403 347.90741 3
-62.982895 -20.252817 347.87189 4
-73.875549 -19.426151 346.4874 8
-73.90242 -19.154846 346.49084 9
-73.745049 -19.735703 346.78098 7
-56.332237 -19.080948 349.27893 8
-56.324486 -19.568562 349.45819 7
-56.31728 -19.117006 349.66461 8
-73.445915 -19.525267 347.60297 8
-56.251411 -19.159031 350.12704 8
-73.478386 -19.248796 347.67499 9
-56.634514 -19.202627 350.45834 8
-56.689339 -19.248318 350.91116 8
-56.548752 -19.741835 350.94354 7
-72.863365 -21.137058 349.01071 3
-72.882927 -20.915022 349.24222 4
-70.644073 -15.160293 292.76126 7
-70.03466 -17.208151 300.72684 6
-69.240761 -17.251722 302.50104 6
-68.536552 -17.2623 303.36926 6
-67.8685 -17.258234 303.80133 6
-70.095665 -17.522118 308.63406 6
-70.633789 -17.555637 309.01038 6
-71.91021 -16.414217 308.93121 7
-71.210938 -17.591843 309.39166 6
-72.097305 -16.610012 311.44382 7
-72.382141 -16.874601 312.83105 7
-66.772011 -18.608736 314.12216 5
-56.208229 -17.50528 315.73904 6
-67.249977 -18.624435 314.70901 5
-59.262646 -18.50234 315.74628 5
-72.660034 -16.971735 314.06757 7
-67.712433 -18.639353 314.93677 5
-58.937935 -18.506088 316.26501 5
-57.074749 -17.547762 316.56683 6
-58.657726 -18.511301 316.86859 5
-58.372993 -18.51672 317.4129 5
-58.160473 -18.523066 317.99628 5
-54.032848 -16.826876 318.93677 7
-74.869209 -17.245699 316.81033 7
-69.292793 -18.705191 317.75565 5
-68.494766 -18.677496 317.89984 5
-68.082542 -18.664019 317.96426 5
-75.299248 -17.27133 316.93976 7
-69.776703 -18.724667 317.82489 5
-54.217621 -16.918556 320.13629 7
-57.529129 -17.831367 320.02524 6
-55.770546 -16.959244 320.32159 7
-55.364334 -16.962727 320.46503 7
-57.318058 -17.851276 320.55045 6
-54.400677 -17.004959 321.26047 7
-75.278381 -17.260336 318.56854 7
-58.906715 -18.553286 321.0997 5
-54.623737 -17.928383 322.37 6
-68.701057 -18.828602 320.92496 5
-76.881363 -18.406424 320.005 6
-76.522377 -18.379557 319.80878 6
-76.122818 -17.514809 319.90109 7
-75.522568 -17.522181 320.33704 7
-75.194954 -17.490906 320.08487 7
-59.139481 -18.702017 322.7215 5
-77.156525 -18.310776 320.35464 6
-57.993362 -17.946381 322.85535 6
-57.671249 -17.952305 323.02924 6
-82.692986 -17.778742 319.63916 7
-59.320984 -18.70838 324.00732 5
-55.477474 -18.013552 324.35825 6
-82.91259 -17.881767 320.88171 7
-66.581123 -19.427597 323.3389 4
-69.968758 -18.175245 322.68552 6
-83.381241 -17.91297 321.00461 7
-40.334534 -17.159086 327.15497 7
-39.402519 -17.158239 327.26779 7
-30.02179 -17.17662 328.58292 7
-67.058327 -19.429043 323.63602 4
-66.279968 -19.410521 323.61307 4
-78.985672 -19.298115 321.91788 5
-69.821327 -18.869028 323.32159 5
-70.882774 -18.229321 323.18643 6
-70.539146 -18.2183 323.26529 6
-70.242012 -18.200256 323.07828 6
-58.240482 -18.029434 324.87701 6
-57.936668 -18.034664 325.01691 6
-38.783966 -17.177856 327.56866 7
-67.576828 -19.432068 323.94678 4
-65.843468 -19.387135 324.0112 4
-65.429314 -19.372984 324.19476 4
-65.101524 -19.362928 324.35156 4
-67.873375 -19.430082 324.23956 4
-63.936962 -19.338959 324.75552 4
-63.650906 -19.335529 324.84225 4
-63.222229 -19.331184 324.97525 4
-62.782455 -19.329891 325.05975 4
-62.48386 -19.330877 325.10208 4
-62.033375 -19.333761 325.16528 4
-61.566765 -19.338882 325.19397 4
-61.242214 -19.343678 325.18982 4
-59.557045 -18.714783 325.30768 5
-56.098446 -18.078526 325.88522 6
-79.635185 -17.86528 322.66626 7
-68.157494 -19.427164 324.57886 4
-56.003159 -18.102224 326.38153 6
-55.638748 -18.108011 326.45166 6
-55.262444 -18.113926 326.51636 6
-68.710205 -19.431395 325.03229 4
-68.435646 -19.428175 324.83539 4
-61.178795 -19.324974 325.87357 4
-69.321091 -18.845783 324.83005 5
-59.690964 -18.720554 326.29886 5
-76.681808 -18.550386 323.87814 6
-76.258713 -18.52836 323.95154 6
-75.894592 -18.506392 323.92307 6
-68.957153 -19.435194 325.19171 4
-60.873425 -19.317402 326.35736 4
-58.531582 -18.106079 326.71344 6
-58.167965 -18.119337 326.99234 6
-55.353928 -18.144127 327.16794 6
-55.080864 -18.155823 327.35437 6
-54.699383 -18.163561 327.41858 6
-54.300354 -18.170851 327.47308 6
-53.899609 -18.178989 327.53687 6
-53.083939 -18.196882 327.68552 6
-83.762756 -18.106468 323.32526 7
-45.069633 -17.478653 328.6803 7
-34.632153 -17.547411 330.22122 6
-52.126976 -17.474804 327.86499 7
-51.193886 -17.476858 328.01038 7
-69.202843 -19.432732 325.53745 4
-60.587841 -19.312889 326.7829 4
-60.392319 -19.312147 327.03598 4
-59.838902 -18.726675 327.24741 5
-45.09948 -17.52314 329.21603 7
-60.190044 -19.312767 327.26346 4
-73.749802 -19.084946 325.60919 5
-73.764023 -18.454145 325.6087 6
-73.379669 -18.440996 325.78314 6
-73.116982 -18.023846 325.6994 6
-72.433136 -18.00798 325.9101 6
-47.770535 -17.551886 329.31189 7
-70.201607 -19.446239 326.53027 4
-69.808342 -19.427061 326.47745 4
-69.375488 -19.410881 326.35339 4
-59.938564 -19.310209 327.68793 4
-52.782394 -18.975098 328.81729 5
-70.244545 -18.885052 326.36633 5
-69.631752 -18.856363 326.66147 5
-59.876713 -18.732328 327.92236 5
-54.592136 -18.231802 328.74744 6
-72.709984 -18.21833 325.97089 6
-72.003883 -18.202765 326.32782 6
-47.507133 -17.575123 329.62436 7
-50.989563 -17.574846 329.25937 7
-50.579659 -17.582176 329.40045 7
-48.97245 -17.587711 329.63406 7
-76.213074 -19.267132 325.99515 5
-59.585709 -19.311876 328.18314 4
-59.762596 -18.737974 328.27887 5
-52.197887 -18.296688 329.26093 6
-51.674988 -18.30764 329.27661 6
-50.155853 -17.590282 329.54343 7
-71.962051 -19.536369 327.0824 4
-71.71389 -19.5226 326.99768 4
-59.297245 -19.312384 328.75049 4
-69.784843 -18.862101 327.45685 5
-72.333206 -19.558126 327.24747 4
-59.09539 -19.314228 329.17349 4
-59.275864 -18.760098 329.22284 5
-67.504814 -19.790207 328.21216 3
-67.233124 -19.76569 328.45197 3
-66.895813 -19.749405 328.55252 3
-66.58062 -19.736807 328.63202 3
-73.165489 -19.610123 327.65265 4
-72.931549 -19.595173 327.54065 4
-71.148773 -19.449013 328.04456 4
-70.898483 -19.433073 328.04254 4
-70.527519 -19.410776 328.03918 4
-70.15715 -19.388557 328.04688 4
-58.890156 -19.317606 329.56635 4
-74.715996 -19.165962 327.53363 5
-74.056091 -19.118538 327.64877 5
-73.735191 -19.095407 327.70956 5
-73.258347 -19.061277 327.54898 5
-71.25399 -18.93763 327.99594 5
-70.819374 -18.914009 328.09857 5
-70.468491 -18.895216 328.09253 5
-70.158623 -18.879904 328.09784 5
-59.066055 -18.771282 329.69327 5
-54.685001 -18.933838 330.13461 5
-54.700954 -18.305077 330.15479 6
-71.230728 -18.420673 328.1279 6
-70.823891 -18.402058 328.14532 6
-70.486046 -18.387218 328.14429 6
-70.174263 -18.373634 328.14465 6
-71.256081 -17.999866 328.19504 7
-70.940163 -17.988548 328.21088 7
-70.562981 -17.974993 328.21985 7
-70.230324 -17.962284 328.21884 7
-70.513237 -17.380274 328.22946 8
-68.054955 -19.770676 328.75366 3
-67.725418 -19.7698 328.59888 3
-66.360374 -19.728416 328.69879 3
-66.142273 -19.719839 328.77341 3
-65.759239 -19.704929 328.9324 3
-64.831589 -19.680849 329.2569 3
-74.133095 -19.68375 328.03561 4
-73.7127 -19.647139 328.01413 4
-73.330536 -19.617022 327.92252 4
-58.574562 -19.326893 330.04495 4
-74.312057 -19.137405 327.73175 5
-73.403435 -19.073477 327.86993 5
-71.273087 -18.938915 328.10385 5
-58.916515 -18.778831 329.92361 5
-58.787628 -18.78734 330.17838 5
-53.178452 -19.025822 330.85046 5
-71.268547 -17.516668 328.38708 8
-70.848412 -17.505981 328.40875 8
-70.483223 -17.496559 328.41898 8
-68.586273 -19.774004 329.02274 3
-64.525162 -19.673084 329.39417 3
-64.119843 -19.669024 329.52817 3
-63.81118 -19.668669 329.60187 3
-63.458393 -19.670025 329.70209 3
-63.038837 -19.673105 329.82578 3
-62.732334 -19.674473 329.94266 3
-74.338806 -19.698172 328.2034 4
-58.33482 -19.33588 330.36041 4
-57.909111 -19.35911 330.43787 4
-57.554401 -19.378017 330.61533 4
-57.275009 -19.394716 330.68851 4
-74.653603 -19.166458 328.11807 5
-58.642136 -18.795376 330.40198 5
-58.367008 -18.808647 330.65808 5
-57.814293 -18.825531 330.57861 5
-57.326416 -18.847395 330.80243 5
-56.699879 -18.872906 330.89828 5
-56.365025 -18.887638 330.93686 5
-54.516045 -18.97374 331.16644 5
-54.117939 -18.993637 331.21539 5
-53.197273 -19.039295 331.25613 5
-52.900257 -19.060093 331.41849 5
-75.975906 -18.691814 328.26227 6
-75.762566 -18.670723 328.09021 6
-54.842663 -18.354856 331.10873 6
-53.576775 -18.383984 331.21091 6
-53.344444 -18.400707 331.41531 6
-49.239174 -18.527508 331.97202 6
-74.762314 -18.613693 328.20383 6
-74.644554 -18.607557 328.21948 6
-44.462547 -17.782337 332.31952 7
-39.795193 -17.683304 333.1597 7
-74.693222 -18.152588 328.2832 7
-40.866619 -17.678223 332.99561 7
-74.62484 -17.621954 328.44934 8
-68.994759 -19.775946 329.27127 3
-62.538723 -19.674683 330.04825 3
-62.255585 -19.675381 330.21869 3
-61.856903 -19.682343 330.39673 3
-69.187302 -19.774744 329.43768 3
-57.083202 -19.405851 330.86453 4
-56.768227 -19.426636 331.10104 4
-52.177086 -19.107315 331.67459 5
-51.629097 -19.136997 331.69388 5
-51.148396 -19.165491 331.77377 5
-50.675476 -19.197474 331.90826 5
-57.665184 -18.835125 330.79852 5
-57.052967 -18.85948 330.88843 5
-52.535622 -19.083921 331.53934 5
-39.558807 -18.754202 333.53906 6
-38.720863 -18.794004 333.772 6
-76.284515 -18.72357 328.53571 6
-52.938789 -18.413347 331.49542 6
-52.103905 -18.441801 331.67484 6
-51.604641 -18.456234 331.72937 6
-51.128983 -18.472353 331.81488 6
-50.485527 -18.492092 331.88562 6
-49.881638 -18.508408 331.92929 6
-48.911362 -18.548548 332.16672 6
-48.338318 -18.570358 332.27847 6
-47.668167 -18.593513 332.36115 6
-61.514084 -19.683178 330.68158 3
-69.780334 -19.783295 329.80728 3
-69.483292 -19.776958 329.6431 3
-61.144962 -19.688599 330.94913 3
-56.329231 -19.456358 331.46924 4
-56.043442 -19.477873 331.74054 4
-50.45961 -19.221495 332.17236 5
-76.681847 -18.75593 328.68253 6
-38.244453 -17.771774 334.30292 7
-36.946117 -17.779285 334.5199 7
-22.175026 -17.239513 336.58072 7
-70.247948 -19.796682 330.07382 3
-69.954109 -19.782457 329.98343 3
-60.806358 -19.694977 331.22208 3
-60.487843 -19.701763 331.51898 3
-55.901474 -19.489151 331.93353 4
-55.634247 -19.510427 332.05008 4
-55.289135 -19.537001 332.11017 4
-54.967155 -19.561878 332.19757 4
-84.113342 -18.51895 328.38474 7
-35.854965 -17.792517 334.7738 7
-71.103111 -19.839121 330.4136 3
-70.823364 -19.82498 330.28827 3
-70.542328 -19.811621 330.16098 3
-60.209194 -19.705923 331.86478 3
-54.949867 -19.567923 332.52689 4
-18.021004 -17.920322 337.8158 7
-84.203789 -18.554174 328.77487 7
-67.907318 -19.979094 331.12277 2
-67.632874 -19.958187 331.22858 2
-67.363693 -19.943842 331.28067 2
-66.977417 -19.923609 331.37695 2
-71.746086 -19.877092 330.71213 3
-71.289192 -19.849609 330.49438 3
-59.967308 -19.708984 332.24503 3
-54.874657 -19.578369 332.80508 4
-54.783493 -19.592575 333.12729 4
-76.831947 -18.367241 329.89185 7
-68.506943 -19.971033 331.45856 2
-68.163544 -19.967621 331.33447 2
-72.400856 -19.922968 331.0159 3
-72.115654 -19.903158 330.86996 3
-66.71772 -19.907974 331.48053 2
-66.486099 -19.883127 331.68329 2
-66.132698 -19.871517 331.7724 2
-65.287163 -19.851372 332.00845 2
-65.045273 -19.846064 332.10376 2
-59.734867 -19.713959 332.62115 3
-54.702396 -19.604664 333.39294 4
-49.346416 -18.687614 334.3186 6
-84.682968 -18.371189 329.39587 7
-84.271889 -18.488323 329.24991 7
-72.743706 -19.947697 331.22586 3
-72.566147 -19.933405 331.13416 3
-69.179001 -19.974974 331.78592 2
-68.931763 -19.975157 331.6423 2
-64.880966 -19.845125 332.14648 2
-64.533646 -19.840799 332.28558 2
-64.141991 -19.842089 332.40826 2
-63.81303 -19.846615 332.50266 2
-63.413128 -19.852205 332.65326 2
-59.417412 -19.726728 333.05966 3
-54.580193 -19.62361 333.78433 4
-75.357094 -19.430288 330.85114 4
-48.958763 -18.608282 334.54327 6
-48.50016 -18.508047 334.771 6
-46.264519 -18.837502 335.15631 6
-46.959595 -18.42894 334.99939 6
-84.783554 -18.407722 329.76511 7
-69.699608 -19.971474 332.18362 2
-69.40625 -19.973112 331.95502 2
-63.029831 -19.857006 332.84436 2
-62.62109 -19.863758 333.07855 2
-62.350296 -19.872883 333.20975 2
-59.05542 -19.746824 333.50366 3
-68.199409 -20.131245 332.69153 1
-67.880684 -20.091805 332.87164 1
-70.140717 -19.981014 332.4548 2
-69.916756 -19.973518 332.33902 2
-67.457581 -20.06855 332.92856 1
-67.039795 -20.049095 332.99359 1
-66.817741 -20.038715 333.04053 1
-62.205296 -19.874063 333.33081 2
-61.889397 -19.883659 333.55176 2
-58.718655 -19.769268 333.9552 3
-29.054718 -18.04273 338.09613 7
-77.138519 -18.504875 331.58066 7
-68.403839 -20.108643 332.93454 1
-70.310791 -19.969662 332.72638 2
-68.974953 -20.115736 333.14896 1
-68.690483 -20.109568 333.05075 1
-66.602211 -20.023779 333.13211 1
-66.297958 -20.014923 333.18982 1
-65.483589 -19.988674 333.46271 1
-65.141693 -19.984562 333.57117 1
-61.522686 -19.890154 333.91855 2
-61.327419 -19.894045 334.15161 2
-58.379406 -19.796545 334.3974 3
-77.214966 -18.540554 332.01089 7
-75.475067 -18.465315 332.2337 7
-75.275177 -18.448294 332.14154 7
-70.598557 -19.940987 333.31821 2
-70.414246 -19.937963 333.15265 2
-69.438759 -20.11451 333.42618 1
-69.250496 -20.120043 333.27243 1
-64.747955 -19.968529 333.81537 1
-64.369316 -19.969124 333.96869 1
-64.010056 -19.973278 334.11871 1
-63.600792 -19.984423 334.2814 1
-61.151657 -19.899946 334.33655 2
-60.920685 -19.910145 334.58359 2
-58.043102 -19.827789 334.8866 3
-70.610336 -18.967346 333.06659 5
-71.173889 -19.981993 333.55615 2
-70.823837 -19.957682 333.38803 2
-69.930618 -20.107952 333.82693 1
-69.695206 -20.111622 333.62726 1
-63.217545 -19.998436 334.43845 1
-62.847927 -20.009106 334.67047 1
-60.748848 -19.918657 334.76819 2
-60.479218 -19.936085 335.04745 2
-57.774651 -19.856453 335.3136 3
-71.701118 -20.020683 333.85861 2
-71.437218 -20.000469 333.70889 2
-70.332611 -20.111721 334.14435 1
-70.099831 -20.106644 333.97836 1
-62.456417 -20.0235 334.93671 1
-62.11758 -20.0371 335.21436 1
-60.192337 -19.955193 335.414 2
-57.633247 -19.872982 335.5817 3
-57.551701 -19.883327 335.74591 3
-79.699646 -19.749153 332.77112 5
-72.079102 -19.139912 333.98126 5
-71.448463 -19.390356 334.08115 4
-91.511337 -19.050724 331.02167 7
-71.955231 -20.040564 334.02197 2
-70.555603 -20.116861 334.31931 1
-61.75555 -20.055899 335.53494 1
-61.480682 -20.074078 335.77954 1
-59.984356 -19.971642 335.67477 2
-72.078262 -19.139399 334.26868 5
-71.507996 -19.293375 334.32849 4
-89.163857 -19.293402 331.71561 6
-73.049751 -18.875343 334.12198 6
-72.347137 -19.106386 334.41379 5
-81.318169 -18.557735 333.13028 7
-74.272888 -18.609995 334.18472 7
-70.671432 -20.084553 334.70883 1
-68.433067 -20.296597 334.94394 0
-68.145378 -20.274971 335.11502 0
-67.764534 -20.262283 335.23404 0
-67.351036 -20.241863 335.26212 0
-66.99659 -20.219427 335.33905 0
-66.588806 -20.189495 335.48062 0
-64.498032 -20.119135 335.76395 0
-64.39682 -20.120188 335.81769 0
-61.319111 -20.085897 335.92731 1
-61.160492 -20.092728 336.17911 1
-60.148663 -19.936739 336.12814 2
-60.086044 -19.936663 336.41885 2
-71.505394 -19.329092 334.74747 4
-78.04818 -19.053915 333.86987 6
-73.088539 -18.89061 334.46143 6
-72.45842 -19.11887 334.64355 5
-72.125931 -19.14481 334.46628 5
-77.927902 -20.081282 333.9989 4
-72.907509 -20.125826 334.8009 2
-71.292839 -20.115602 335.22324 1
-70.961678 -20.08861 335.02057 1
-66.097382 -20.17522 335.60529 0
-65.842819 -20.169327 335.69122 0
-65.427956 -20.167995 335.8237 0
-65.025826 -20.170736 335.97861 0
-64.778404 -20.174479 336.08374 0
-64.160164 -20.159388 336.21292 0
-61.097214 -20.082844 336.50937 1
-60.008224 -19.942333 336.65375 2
-78.006447 -20.09635 334.21423 4
-71.808479 -19.730247 335.22791 2.5999999
-71.55127 -19.714228 335.10596 2.5
-71.780327 -19.393749 335.1579 4
-71.581375 -19.375586 335.01291 4
-90.259369 -19.128874 332.65668 7
-89.588493 -19.078527 332.49744 7
-78.33107 -19.252811 334.06613 6
-73.070107 -18.905176 334.86929 6
-72.476067 -19.124218 334.96497 5
-73.849197 -18.696264 334.98172 6
-73.191536 -18.817381 335.0878 6
-73.204453 -20.155506 335.11856 2
-71.746338 -20.153404 335.56415 1
-71.578117 -20.140312 335.41696 1
-69.390129 -20.261448 335.91562 0
-69.08242 -20.247705 335.79904 0
-68.796127 -20.246283 335.65726 0
-64.175552 -20.162571 336.56091 0
-63.920101 -20.200396 336.55457 0
-63.678566 -20.211557 336.71637 0
-61.024532 -20.078054 336.81711 1
-59.963337 -19.942596 337.0416 2
-78.069687 -20.112658 334.56763 4
-71.997467 -19.663792 335.30475 3
-91.04364 -19.18187 332.78912 7
-73.836174 -18.985029 335.29712 6
-73.330826 -18.784426 335.16028 6
-74.367134 -20.234211 335.5123 2
-73.513649 -20.191715 335.43753 2
-72.166626 -20.198296 335.88507 1
-72.006027 -20.178825 335.78134 1
-69.823891 -20.27236 336.18137 0
-69.610672 -20.266148 336.04819 0
-63.493095 -20.223938 336.83099 0
-63.223129 -20.24452 337.01852 0
-62.952271 -20.26857 337.21088 0
-60.942982 -20.071369 337.25946 1
-59.903881 -19.947041 337.39899 2
-55.874577 -19.677067 338.21432 4
-75.741074 -19.413961 335.4071 5
-55.983646 -19.30456 338.25751 5
-55.423668 -19.346397 338.30148 5
-90.500717 -19.213776 333.47433 7
-75.51059 -19.133718 335.3884 6
-75.284897 -18.989599 335.34143 6
-59.789001 -19.080587 337.76822 5
-73.81012 -20.230463 335.76617 2
-72.362083 -20.218206 336.0918 1
-70.28289 -20.295303 336.48294 0
-70.060966 -20.283871 336.3288 0
-62.764656 -20.284441 337.37793 0
-62.630741 -20.286037 337.6044 0
-60.868488 -20.068825 337.69553 1
-78.005669 -20.12686 335.48334 4
-71.212517 -19.807968 336.53906 2
-55.648216 -19.720112 338.56369 4
-60.532921 -19.314293 337.85535 4
-58.204956 -19.147505 338.17233 5
-57.849686 -19.179428 338.31119 5
-57.299229 -19.222519 338.39679 5
-55.165924 -19.376354 338.47272 5
-77.69809 -19.134501 335.53574 6
-59.764561 -19.095364 338.05472 5
-59.276623 -19.136314 338.1933 5
-54.582085 -18.963497 338.71243 6
-77.785095 -18.916124 335.46335 6
-77.784691 -18.85041 335.6525 7
-77.636238 -18.419436 335.66568 8
-72.580536 -20.23901 336.36307 1
-72.024185 -20.200029 336.40793 1
-70.723099 -20.319239 336.85303 0
-70.516434 -20.306858 336.67371 0
-62.592823 -20.271099 337.82458 0
-60.798328 -20.070723 338.13443 1
-71.185234 -20.010918 336.56351 1
-55.868587 -19.714758 338.84644 4
-54.571751 -19.863844 339.1142 4
-71.204666 -19.508991 336.60809 3.25
-60.687416 -19.305954 338.10718 4
-55.079887 -19.412569 338.90573 5
-94.214172 -19.419689 333.55081 7
-54.565075 -18.991238 339.05185 6
-77.680511 -18.433834 335.80136 8
-77.842918 -18.069923 335.85349 9
-72.445045 -20.247299 336.89948 1
-70.998688 -20.335337 337.14264 0
-62.481678 -20.255512 338.24951 0
-60.892742 -20.046513 338.60574 1
-60.756004 -20.073748 338.38812 1
-60.294422 -19.889874 338.54279 2
-55.050533 -19.845802 339.56052 4
-61.20023 -19.270693 338.67804 4
-94.279602 -19.467497 334.03543 7
-47.742981 -18.551889 340.68896 7
-71.129242 -20.308783 337.54465 0
-62.385345 -20.246038 338.65036 0
-61.335289 -20.029997 339.09042 1
-61.189289 -20.060232 338.88593 1
-59.887436 -19.967291 339.19147 2
-54.780373 -19.89443 339.84531 4
-90.619408 -19.809641 334.99841 6
-90.582878 -19.788427 334.77771 6
-72.201225 -19.686419 337.5509 3
-61.489323 -19.301311 339.10495 4
-61.202503 -19.323174 338.80502 4
-54.732174 -19.512297 339.8916 5
-47.395802 -19.29738 340.95844 6
-90.673676 -19.453276 334.89395 6.6666665
-73.413132 -19.28092 337.4408 5
-55.104359 -18.961916 339.98715 6
-54.741486 -19.012878 339.92404 6
-85.766464 -19.161716 335.72058 7
-54.878723 -18.553375 340.02048 7
-77.783028 -18.487574 336.58893 8
-90.646057 -18.463223 334.95004 8
-71.30146 -20.307623 337.8952 0
-62.287636 -20.241537 339.11981 0
-58.01329 -19.953245 339.77112 3
-55.00584 -19.899649 340.21487 4
-41.66177 -19.582132 342.00208 6
-72.03598 -19.654142 337.82162 3
-61.751793 -19.731373 339.46115 2
-74.42247 -19.154387 337.60043 6
-61.784733 -19.024162 339.50677 5
-61.493309 -19.299606 339.38385 4
-78.082542 -19.021629 337.082 6.5
-73.792038 -19.098949 337.66394 6
-61.884129 -18.624878 339.50778 7
-48.104813 -18.619968 341.38516 7
-78.07811 -18.524353 337.13763 8
-77.96386 -18.587696 337.23218 8
-78.057983 -18.152988 337.14285 9
-62.199203 -20.250765 339.41345 0
-61.798798 -19.93746 339.47839 1
-61.497299 -20.000277 339.78635 1
-59.769722 -20.006378 339.74841 2
-59.68124 -20.026152 339.86621 2
-57.945877 -19.988453 340.18277 3
-55.05769 -19.92086 340.5484 4
-41.68383 -19.624754 342.44556 6
-71.972717 -19.637756 338.32352 3
-61.797405 -19.499847 339.50937 3
-61.73727 -19.659275 339.50674 2.3333333
-61.815331 -19.172689 339.56985 4.5
-61.502369 -19.325624 339.77167 4
-54.895111 -19.112494 340.62161 6
-61.868752 -18.76425 339.58929 6.5
-48.029469 -18.651945 341.71774 7
-61.835308 -18.326523 339.6517 8.5
-71.852127 -20.385315 338.69528 0
-71.945236 -20.032244 338.70001 1
-61.245754 -20.061466 340.16599 1
-55.196575 -19.943855 340.99316 4
-50.730629 -19.866838 341.69678 5
-42.087273 -19.654446 342.87735 6
-76.655869 -20.015125 338.1127 4
-72.011093 -19.747513 338.64075 2.5
-61.586361 -19.549019 340.08267 3
-61.610046 -19.329493 340.11789 4
-55.013519 -19.148251 341.06946 6
-78.247704 -19.175419 337.91583 6
-71.935425 -20.40019 338.84335 0
-61.469379 -20.020285 340.3475 1
-61.039257 -20.115587 340.45789 1
-59.600586 -20.076319 340.55731 2
-55.218185 -19.968971 341.31381 4
-55.12397 -19.998238 341.52063 4
-88.071808 -20.148621 336.6972 6
-76.708603 -20.030161 338.2793 4
-61.784157 -19.536978 340.41837 3
-61.474831 -19.815176 340.59555 2
-55.248554 -19.599941 341.36523 5
-61.559448 -19.359394 340.54343 4
-55.024101 -19.197784 341.60956 6
-78.28186 -19.20252 338.22504 6
-61.941231 -20.317129 340.72699 0
-86.089767 -20.278419 337.61572 5
-61.684002 -19.994696 340.82419 1
-61.0457 -20.137367 340.92178 1
-54.909946 -20.041843 341.74609 4
-86.105247 -20.048796 337.60699 6
-72.279465 -19.69084 339.41177 3
-61.692665 -19.647049 340.85916 2.6666667
-61.453129 -19.83005 340.7984 2
-55.11768 -19.667427 341.9783 5
-55.062901 -19.214899 341.80576 6
-78.283875 -19.229515 338.54266 6
-74.501938 -19.01095 339.12311 7
-61.914467 -20.347017 341.20847 0
-61.887566 -19.984913 341.38483 1
-61.004944 -20.190458 341.54739 1
-59.638412 -20.130699 341.40073 2
-54.391502 -20.138891 342.18082 4
-52.655663 -19.813822 342.51105 5
-72.613518 -19.802801 339.98965 3
-61.815723 -19.693478 341.35913 2.5
-53.575127 -19.72508 342.24713 5
-91.020119 -19.589321 337.28235 7
-73.83564 -19.528269 339.71008 5
-79.198166 -19.112991 339.09747 7
-73.912842 -19.225243 339.68314 6
-73.87426 -19.213791 339.56897 6
-49.256401 -18.785847 343.05646 7
-47.773621 -18.8225 343.4736 7
-85.731308 -20.7675 338.35648 5
-61.92144 -20.376659 341.66064 0
-81.890778 -20.33526 338.99612 5
-75.271187 -20.546589 339.90573 2
-73.728516 -20.515448 340.09311 1
-73.193802 -20.374973 340.1138 1
-72.555878 -20.211658 340.09454 1
-61.821075 -20.01951 341.63974 1
-84.94754 -20.028837 338.60916 6
-73.419495 -19.962797 340.21976 3
-72.577637 -19.940874 340.13467 2.3333333
-71.872887 -19.857109 340.35989 2
-62.128735 -19.560535 341.53745 3
-61.979664 -19.698048 341.69553 2.5
-54.473095 -19.787203 342.68634 5
-91.079384 -19.630367 337.69049 7
-78.548546 -19.809128 339.44522 5
-73.434998 -19.52253 340.17621 4.3333335
-54.447445 -19.330519 342.73199 6
-79.300713 -19.210447 339.29019 7
-79.024979 -19.148876 339.5921 7
-88.73645 -21.007004 338.36185 5
-85.759705 -20.796076 338.67792 5
-61.953129 -20.384815 341.8638 0
-78.444016 -20.461306 339.78806 4
-75.330353 -20.567507 340.11972 2
-73.824776 -20.54533 340.41928 1
-72.133568 -20.51441 340.67569 0
-61.951317 -20.181973 342.0896 0.60000002
-84.984634 -20.05895 338.91309 6
-75.996048 -20.123499 340.27274 4
-75.503326 -20.038748 340.26208 4
-62.099285 -19.597446 341.90854 3
-61.911594 -19.691332 342.05737 2.6666667
-55.211712 -19.772507 343.07654 5
-54.878281 -19.77722 342.88477 5
-74.461403 -19.547771 340.21936 5
-61.670765 -19.481813 342.22205 4
-54.860443 -19.333797 342.93002 6
-75.531883 -19.378483 340.17484 6
-55.299923 -18.898813 343.24414 7
-77.840828 -20.759022 340.31192 3
-78.493462 -20.490936 340.10855 4
-75.421349 -20.606777 340.52658 2
-73.879158 -20.572403 340.85373 1
-72.223122 -20.541409 341.02997 0
-62.013149 -20.209108 342.46097 0.60000002
-62.203922 -20.014071 342.42349 1
-62.083359 -19.834549 342.48938 2.1111112
-55.418793 -19.777172 343.26886 5
-55.440884 -19.79793 343.47638 5
-79.906975 -19.563879 340.20523 6
-71.908577 -19.757586 341.14355 2.5
-62.188499 -19.641504 342.45932 3
-61.846802 -19.501829 342.61475 4
-61.706017 -19.515568 342.57645 4
-55.427105 -19.346539 343.27213 6
-55.370304 -19.355917 343.33789 6
-55.403931 -18.912769 343.38754 7
-55.549164 -18.492611 343.41553 8
-55.378643 -18.115402 343.45407 9
-77.853027 -20.772627 340.47632 3
-78.630081 -20.54199 340.49939 4
-75.437691 -20.629211 340.87854 2
-74.335449 -20.644484 341.28998 1
-73.912727 -20.595016 341.16074 1
-72.293564 -20.571253 341.42883 0
-62.054977 -20.21294 342.76434 0.66666669
-78.531487 -20.107538 340.5864 5
-62.012264 -19.925646 342.91824 2
-55.459373 -19.830492 343.78088 5
-78.569153 -19.700943 340.64697 6
-71.96624 -19.751141 341.46149 3
-62.264229 -19.702068 343.05103 3
-61.830742 -19.55118 343.01428 4
-55.432308 -19.404175 343.81824 6
-78.596695 -19.298672 340.71695 7
-55.433361 -18.951315 343.7681 7
-78.674553 -18.954229 340.73517 8
-78.508987 -18.96328 340.87524 8
-55.590504 -18.532455 343.81418 8
-78.606033 -18.549915 340.75595 9
-78.491364 -18.564806 340.89694 9
-55.432137 -18.155516 343.85205 9
-72.343231 -20.605719 341.82251 0
-62.129131 -20.364637 343.07001 0.33333334
-78.655281 -20.140692 340.79379 5
-72.758644 -19.994188 341.78333 2.5
-72.494522 -20.146059 341.92441 1.5
-62.330585 -20.020796 343.13916 1.3333334
-55.702934 -19.858618 344.18329 5
-78.617813 -19.732265 340.84265 6
-73.136383 -19.610537 341.94083 5
-72.811142 -19.720865 341.84665 4
-72.563515 -19.886271 341.98154 3
-62.344574 -19.71192 343.20898 3
-61.994919 -19.562172 343.25885 4
-55.504116 -19.445311 344.22232 6
-78.642021 -19.327547 340.99426 7
-73.970612 -19.205004 341.82443 7
-73.686859 -19.441746 341.74005 6
-55.511871 -18.99181 344.16714 7
-78.693642 -18.976252 340.95224 8
-55.652187 -18.570946 344.1925 8
-78.655136 -18.576214 341.01169 9
-55.505951 -18.204741 344.3374 9
-72.341515 -20.630318 342.18613 0
-72.42392 -20.145027 342.17773 1.5714285
-62.395065 -19.962193 343.65079 2
-62.345512 -19.792589 343.76996 3
-56.264137 -19.866331 344.59418 5
-55.574059 -19.909376 344.53375 5
-84.179764 -19.73432 340.55389 6
-72.522598 -19.891003 342.14151 3
-62.373539 -19.746401 343.48483 3
-62.088043 -19.604568 343.65573 4
-55.527046 -19.477171 344.52115 6
-74.785583 -19.48415 341.83615 6
-55.550247 -19.034405 344.5834 7
-55.714005 -18.611649 344.59351 8
-55.574478 -18.245598 344.73792 9
-72.329666 -20.671745 342.64667 0
-62.419434 -20.588768 344.01529 0
-62.378899 -20.235079 344.08417 1
-72.409988 -20.142225 342.60532 1.8
-62.444607 -19.932894 343.99924 2.4000001
-62.333302 -20.052015 344.10187 2
-56.548119 -19.861786 344.73004 5
-73.039169 -19.659077 342.61658 5
-62.13979 -19.656292 344.04968 4
-55.592255 -19.518978 344.9137 6
-55.613304 -19.074823 344.97269 7
-55.774239 -18.650343 344.98038 8
-55.616196 -18.275484 345.04501 9
-62.510246 -20.436508 344.28735 0.5
-62.352493 -20.28157 344.29202 1
-72.881676 -20.052311 342.99435 3
-72.409782 -20.289322 342.83188 1
-72.284363 -20.107759 342.93683 2
-62.454525 -20.014339 344.38196 2.3333333
-62.407722 -19.983599 344.35995 2.5
-56.274231 -19.96767 345.41833 5
-55.68325 -19.976871 345.15491 5
-55.701012 -20.002159 345.36868 5
-62.329224 -19.68655 344.3822 4
-55.745071 -19.584894 345.54034 6
-55.657005 -19.562544 345.31821 6
-74.076523 -19.418055 342.91422 6.5
-55.676945 -19.118084 345.38474 7
-74.167938 -19.114756 342.88626 8
-55.839134 -18.692053 345.39471 8
-55.685669 -18.315659 345.45224 9
-73.782806 -20.760906 343.3497 1
-72.888641 -20.728941 343.29285 0
-62.670536 -20.556923 344.70599 0.33333334
-72.236832 -20.10729 343.38281 2
-62.534176 -20.054155 344.83817 2.5
-55.784431 -20.04903 345.78485 5
-72.99334 -19.889658 343.2077 4
-62.528358 -19.766434 344.99017 4
-62.37154 -19.749809 344.79648 4
-55.754868 -19.622484 345.85999 6
-73.891548 -19.543699 343.35034 6
-73.580742 -19.572914 343.20801 6
-55.74168 -19.159233 345.77173 7
-55.904736 -18.73085 345.77457 8
-55.742538 -18.354412 345.85397 9
-75.200554 -20.823723 343.55026 2
-73.694893 -20.773615 343.6084 1
-72.84726 -20.755142 343.54462 0
-72.780151 -20.767578 343.74353 0
-72.336197 -20.644993 343.84076 0
-62.581211 -20.401669 345.05695 1
-62.515118 -20.484104 345.35693 1
-62.583046 -20.106503 345.13531 2.5
-62.558704 -20.270939 345.38431 2
-56.79985 -20.004442 345.97858 5
-55.818981 -20.074591 345.99625 5
-62.577251 -19.799513 345.20236 4
-55.718689 -19.659349 346.15936 6
-55.762688 -19.200527 346.15945 7
-55.895527 -18.767941 346.15955 8
-55.830441 -18.783493 346.34656 8
-55.798351 -18.387358 346.19296 9
-75.159599 -20.831194 343.67868 2
-73.520523 -20.788733 344.00854 1
-72.669334 -20.78433 344.02451 0
-72.317383 -20.799271 344.15524 0
-62.754829 -20.481771 345.52298 1
-62.673923 -20.183132 345.56177 2.5
-56.721291 -20.055878 346.32532 5
-72.264938 -20.085274 344.13873 3
-71.951935 -19.853388 344.4679 4.4000001
-71.642082 -20.014223 344.43604 3
-62.657612 -19.864603 345.6001 4
-55.694717 -19.704672 346.52698 6
-71.910522 -19.519241 344.36853 6
-55.721664 -19.245729 346.57446 7
-71.941223 -19.165659 344.45502 8.3000002
-55.865341 -18.809507 346.6073 8
-63.666828 -20.838274 345.98401 0
-78.068588 -20.779579 343.96341 4
-76.908157 -20.8995 343.79724 3
-76.860046 -20.920177 344.03622 3
-76.45192 -20.862724 344.21042 3
-76.01091 -20.785769 344.28314 3
-75.644455 -20.724089 344.35638 3
-74.998848 -20.846258 344.05161 2
-74.832016 -20.83683 344.24951 2
-74.3629 -20.765881 344.48816 2
-74.034454 -20.702511 344.5585 2
-73.407204 -20.824375 344.39026 1
-73.304436 -20.838133 344.60834 1
-63.581703 -20.817444 345.86783 0
-63.176861 -20.53673 346.00851 1
-62.808723 -20.544888 345.8103 1
-78.727585 -20.451782 343.88138 5
-78.035797 -20.371849 343.9874 5
-77.44133 -20.30377 344.08307 5
-76.92878 -20.246603 344.17358 5
-76.473167 -20.54191 344.23343 4
-75.699593 -20.46929 344.37628 4
-71.667404 -20.232096 344.59921 2
-63.131313 -20.249933 346.11548 2.5
-62.759727 -20.248108 345.91055 2.5
-57.131325 -20.096586 346.8161 5
-56.476994 -20.150455 346.88736 5
-55.960938 -20.180285 346.85519 5
-71.844116 -20.086445 344.62009 3
-62.753025 -19.921928 345.94672 4
-62.50671 -19.935768 345.90274 4
-62.225578 -19.789324 346.27081 5
-55.757591 -19.740967 346.84198 6
-79.067825 -19.631886 343.82642 7
-71.931007 -19.50948 344.67609 6.5
-62.935291 -19.439295 346.17749 6.3333335
-55.760826 -19.279779 346.88885 7
-71.951874 -19.242542 344.71393 8
-62.945408 -19.105043 346.20435 8
-55.912411 -18.83881 346.89468 8
-63.94672 -20.898104 346.31314 0
-63.810181 -20.86479 346.14362 0
-73.162712 -20.710054 344.73492 1.5
-72.121803 -20.766888 345.00729 0.60000002
-63.147739 -20.56888 346.11032 1
-62.839634 -20.636133 346.1788 1
-74.989555 -20.365948 344.51514 4
-74.665718 -20.316988 344.5621 4
-74.044838 -20.34041 344.65024 3.6666667
-73.608894 -20.210772 344.73251 4
-73.10585 -20.360527 344.79971 3
-72.242577 -20.355814 345.09708 2.5
-72.204269 -20.230888 345.03528 3
-62.877365 -20.294992 346.18222 2.5
-76.206047 -20.235456 344.38467 5
-76.014038 -19.911486 344.68289 6
-74.892067 -20.115316 344.8515 5
-73.433937 -20.188864 344.78589 4
-73.267563 -20.168777 344.83823 4
-72.299355 -20.043854 345.06738 4
-62.86425 -19.905508 346.29434 4.3333335
-62.518532 -19.91597 346.43005 4.5
-62.280327 -19.806477 346.38934 5
-56.088486 -19.796494 347.37686 6
-55.983673 -19.80468 347.41034 6
-62.917053 -19.418274 346.43509 6.6666665
-56.026993 -19.341875 347.45468 7
-55.967384 -19.317461 347.23532 7
-62.958347 -19.052658 346.43002 8.333333
-56.157917 -18.894289 347.39099 8
-71.635849 -21.034794 345.62222 0
-64.169403 -20.940918 346.54044 0
-72.236664 -20.721048 345.34509 1
-62.845066 -20.786135 346.7312 1
-78.065979 -20.445244 344.58014 5
-77.205879 -20.354326 344.76688 5
-73.591789 -20.284195 345.20731 4
-72.286476 -20.424603 345.39282 2.5
-58.593559 -20.07748 347.32196 5
-55.840107 -20.335339 347.89838 5
-55.618126 -20.328987 347.75589 5
-76.032532 -20.09758 344.8266 5.5
-75.804932 -20.189182 344.90994 5
-74.893837 -20.127403 345.13181 5
-73.127136 -19.97818 345.25766 5
-72.316879 -19.983997 345.38361 4.6666665
-72.275291 -19.936468 345.49225 5
-62.703758 -19.881966 346.95468 5
-56.054466 -19.851028 347.79678 6
-72.976639 -19.749744 345.44229 6
-56.060104 -19.379433 347.79233 7
-56.216053 -18.934782 347.79004 8
-71.520531 -21.055866 345.79123 0
-71.33699 -21.0781 346.0119 0
-64.475227 -21.018913 346.88113 0
-72.355026 -20.908062 345.98547 1
-63.271378 -20.876978 347.2569 1
-63.027058 -20.7815 347.08185 1.25
-72.375687 -20.662231 345.88171 2
-62.915394 -20.307709 347.30453 3.5
-56.150761 -20.347553 348.11545 5
-62.861431 -19.938065 347.30801 5
-62.763424 -19.914259 347.14981 5
-56.107086 -19.889944 348.10922 6
-72.968002 -19.800486 345.80731 6
-56.127922 -19.426037 348.20898 7
-56.268776 -18.971828 348.16293 8
-71.164085 -21.103968 346.22223 0
-70.953682 -21.118822 346.41177 0
-70.682724 -21.128189 346.61124 0
-64.957535 -21.160023 347.40625 0
-64.535004 -21.099688 347.11731 0
-72.409538 -20.840826 346.12152 1.5
-63.489132 -20.907679 347.44958 1
-62.914543 -20.665848 347.47156 2
-62.828587 -20.732758 347.69638 2
-72.916046 -20.442102 346.06052 3.5
-72.539497 -20.522875 346.19534 3
-62.906334 -20.337286 347.62039 3.5
-62.877045 -20.316311 347.66699 3.6666667
-56.202145 -20.396372 348.46759 5
-72.540024 -20.137302 346.21667 4.6666665
-62.952385 -19.972378 347.51434 5
-56.197762 -19.941109 348.52136 6
-73.699348 -19.91213 346.0939 6
-56.186501 -19.469593 348.59613 7
-56.320652 -19.003214 348.4726 8
-70.529739 -21.180447 346.83841 0
-65.913643 -21.161346 347.61526 0
-65.478661 -21.153549 347.51773 0
-65.214737 -21.151365 347.45291 0
-72.434189 -21.062578 346.50674 1
-72.365692 -21.110767 346.74136 1
-63.89101 -20.978832 347.82819 1
-62.959633 -20.824636 348.0947 2
-62.876225 -20.783381 347.90884 2
-72.589745 -20.602362 346.52927 3
-62.933189 -20.50404 347.83725 3
-62.859978 -20.249411 347.82257 4
-56.255165 -20.467892 348.95959 5
-63.01926 -20.037252 348.11435 5
-62.877392 -20.018675 347.98203 5
-56.216255 -19.972954 348.7709 6
-74.51693 -19.726391 346.28516 7
-74.255432 -19.939665 346.27173 6
-73.789024 -19.755899 346.48798 6.8000002
-73.503448 -19.967617 346.61124 6
-73.846245 -19.435545 346.59164 8
-73.865967 -19.15694 346.52286 9
-70.512161 -21.279541 347.10873 0
-70.25428 -21.248253 347.15823 0
-69.868004 -21.22698 347.27893 0
-69.497101 -21.2148 347.39313 0
-69.124359 -21.204693 347.49072 0
-68.743668 -21.193274 347.56717 0
-68.334618 -21.192635 347.65112 0
-67.880486 -21.185011 347.70212 0
-67.487221 -21.183725 347.73474 0
-67.100334 -21.173243 347.72543 0
-66.713936 -21.159153 347.68683 0
-66.319962 -21.159622 347.66074 0
-72.181847 -21.121681 346.92224 1
-71.969086 -21.146503 347.16129 1
-64.340134 -21.051617 348.19186 1
-63.020309 -20.886225 348.34763 2
-72.566216 -20.727766 347.11746 3
-55.964195 -20.469942 349.41052 5
-72.682037 -20.210936 346.98956 5
-63.064476 -20.094017 348.42569 5
-56.29958 -20.041203 349.29749 6
-73.499298 -19.744009 346.97382 7
-56.335007 -19.556307 349.3522 7
-56.359821 -19.093636 349.401 8
-73.807571 -19.158604 346.84344 9
-71.813011 -21.164391 347.32837 1
-71.602219 -21.191801 347.55255 1
-64.718628 -21.092907 348.41174 1
-64.555565 -21.081354 348.33734 1
-63.117275 -20.988174 348.75626 2
-73.435936 -20.564207 347.18637 4
-72.608192 -20.77232 347.5798 3
-57.73317 -20.44001 349.32806 5
-56.010113 -20.505804 349.6619 5
-73.546013 -20.307255 347.23462 5
-63.116386 -20.170132 348.83044 5
-56.358223 -20.090174 349.67072 6
-73.570457 -19.837095 347.49234 6.75
-56.369949 -19.60141 349.742 7
-73.491608 -19.518219 347.51636 8
-56.354671 -19.128386 349.7702 8
-73.487419 -19.245077 347.6344 9
-64.752373 -21.163166 348.85971 1
-74.663345 -21.077972 347.47537 3
-72.642242 -21.10878 347.78214 2
-71.217667 -21.222729 347.8746 1
-70.845322 -21.234982 348.10272 1
-63.637001 -21.07387 349.21011 2
-63.416378 -21.039948 349.03198 2
-73.267807 -20.655642 347.7684 4
-72.64209 -20.825356 347.79291 3
-56.187328 -20.550093 350.01151 5
-73.520134 -20.257109 347.86069 5.5
-72.827065 -20.312567 348.0137 5
-63.2108 -20.239702 349.2066 5
-56.423752 -20.14727 350.09818 6
-73.538734 -19.80987 347.86118 7
-56.426208 -19.64538 350.12003 7
-73.571884 -19.568573 347.97647 8
-56.461002 -19.182545 350.30484 8
-56.35136 -19.163435 350.14185 8
-73.638298 -19.278194 348.02991 9
-70.709419 -21.27092 348.27673 1
-69.965019 -21.301735 348.66992 1
-69.695877 -21.297483 348.74802 1
-67.285507 -21.249176 349.05905 1
-66.896904 -21.234665 349.03513 1
-66.464806 -21.229643 349.01865 1
-66.262535 -21.229654 349.01285 1
-64.838768 -21.260761 349.17499 1
-89.928955 -21.168633 345.66171 6
-72.718384 -21.124887 348.19061 2.3333333
-72.643814 -21.25972 348.36801 2
-64.059555 -21.118687 349.46286 2
-63.816158 -21.092983 349.32101 2
-75.790894 -20.613859 347.86237 5
-75.227081 -20.896843 347.7832 4
-56.488167 -20.614285 350.51752 5
-73.329178 -20.422184 348.03476 5
-63.257385 -20.3349 349.70557 5
-57.358906 -20.139339 350.21576 6
-56.485451 -20.197189 350.47147 6
-73.68589 -19.875484 348.31506 7
-56.490513 -19.694374 350.53812 7
-56.618198 -19.212688 350.56671 8
-73.656357 -19.281649 348.08026 9
-70.787392 -21.389137 348.84558 1
-70.51754 -21.384605 348.944 1
-70.220161 -21.35858 348.97995 1
-69.306679 -21.289543 348.83975 1
-69.013489 -21.281834 348.89496 1
-68.484604 -21.269979 348.97339 1
-68.10054 -21.263657 349.01883 1
-67.733887 -21.260273 349.05579 1
-66.054047 -21.286388 349.38977 1
-65.790741 -21.292717 349.39001 1
-65.346474 -21.315248 349.41275 1
-65.03083 -21.332943 349.42435 1
-89.98056 -21.216696 346.06311 6
-72.462189 -21.271973 348.52649 2
-72.172821 -21.292469 348.77042 2
-68.834457 -21.271841 348.90805 1
-64.813591 -21.196863 349.85767 2
-64.58432 -21.178204 349.76151 2
-64.306328 -21.144716 349.60013 2
-75.845818 -20.658155 348.10281 5
-73.541527 -20.843256 348.50909 4
-73.387833 -20.834068 348.56348 4
-73.52784 -20.53212 348.52829 5
-63.280643 -20.420248 350.14133 5
-57.067123 -20.241364 350.88834 6
-73.49826 -19.837492 348.55731 7
-56.544285 -19.732843 350.86282 7
-56.668953 -19.239794 350.82977 8
-90.032585 -21.265059 346.4675 6
-89.730324 -21.275879 346.8093 6
-72.873093 -21.155796 349.08627 3
-72.017578 -21.307676 348.91031 2
-71.757645 -21.324532 349.10602 2
-71.556641 -21.342377 349.26868 2
-64.980934 -21.245148 350.0394 2
-63.268417 -21.055275 350.26642 3
-88.632294 -21.195307 346.97757 6
-75.439095 -20.981028 348.45035 4
-63.33844 -20.464544 350.37213 5
-58.740227 -20.22361 351.0116 6
-74.055862 -19.9063 348.88898 7
-65.084412 -21.369667 350.46576 2
-82.229576 -21.34515 348.11719 5
-72.91124 -21.215513 349.31784 3
-71.355576 -21.357107 349.41245 2
-71.021004 -21.371449 349.60757 2
-63.385719 -21.174351 350.76178 3
-87.651749 -21.125103 347.13495 6
-85.794006 -21.033123 347.77878 6
-84.832047 -20.953831 347.82822 6
-73.499542 -20.9669 349.12689 4
-72.957138 -20.915602 349.20297 4
-73.70089 -20.329901 349.27029 6
-73.090721 -20.626167 349.2897 5
-63.459492 -20.463209 350.69308 5
-58.930885 -20.24555 351.17883 6
-86.890305 -20.362789 347.42709 7
-85.927063 -20.320166 347.52258 7
-70.979767 -21.484968 350.01514 2
-70.680626 -21.449253 350.00662 2
-66.228813 -21.360052 350.49469 2
-65.921776 -21.378277 350.54776 2
-65.494423 -21.396212 350.58801 2
-65.219139 -21.405516 350.59677 2
-72.975151 -21.321514 349.73221 3
-70.268738 -21.419909 350.05081 2
-69.886932 -21.415247 350.15616 2
-69.460892 -21.402248 350.23068 2
-69.106361 -21.393064 350.28693 2
-68.683212 -21.387295 350.35767 2
-68.291367 -21.378166 350.39758 2
-67.881058 -21.376801 350.45059 2
-67.528641 -21.369892 350.46811 2
-67.096809 -21.356848 350.45963 2
-66.672005 -21.354845 350.47214 2
-66.45266 -21.354759 350.47577 2
-63.856785 -21.253864 351.14581 3
-63.645359 -21.223589 350.99738 3
-84.735214 -20.980059 348.12341 6
-84.331963 -20.963207 348.28549 6
-63.519512 -20.55422 351.16534 5
-73.009842 -21.401674 350.04794 3
-72.834251 -21.423124 350.22702 3
-64.408829 -21.304787 351.40262 3
-64.07782 -21.280638 351.27603 3
-84.057426 -20.966457 348.5119 6
-63.573658 -20.614656 351.48029 5
-73.696236 -20.466663 350.14993 6
-100.31165 -20.613737 346.64081 7
-72.640823 -21.438047 350.38589 3
-72.375633 -21.46641 350.6283 3
-72.107254 -21.492432 350.85464 3
-64.790016 -21.351833 351.61316 3
-63.617477 -20.685698 351.84528 5
-73.535568 -20.465549 350.54587 6
-73.211952 -20.495453 350.55753 6
-56.872314 -19.98918 353.00357 7
-71.893242 -21.504114 350.99191 3
-71.600441 -21.517956 351.16461 3
-71.371117 -21.524347 351.27814 3
-65.177711 -21.403143 351.82761 3
-63.599808 -21.21129 352.40646 4
-63.670429 -20.757771 352.21805 5
-73.14061 -20.493635 350.89929 6
-56.919361 -20.030037 353.33652 7
-66.071877 -21.524416 352.28989 3
-65.791176 -21.541864 352.35812 3
-65.423172 -21.546585 352.37387 3
-73.255356 -21.378588 351.37253 4
-71.247124 -21.548508 351.41855 3
-70.893639 -21.601801 351.74606 3
-70.538849 -21.583492 351.78867 3
-70.150688 -21.571688 351.85654 3
-69.677101 -21.556011 351.92599 3
-69.333481 -21.545671 351.96991 3
-68.908096 -21.540289 352.03787 3
-68.478279 -21.528309 352.07568 3
-68.121063 -21.52914 352.13544 3
-67.760445 -21.525425 352.17029 3
-67.374596 -21.512451 352.16431 3
-66.905624 -21.519922 352.2334 3
-66.535927 -21.520449 352.25803 3
-66.254257 -21.517759 352.25912 3
-63.668884 -21.29705 352.78067 4
-63.705086 -20.848923 352.67868 5
-56.929497 -20.542522 353.6828 6
-71.25528 -21.672771 351.89584 3
-73.309784 -21.473679 351.77359 4
-56.979897 -20.592266 354.03363 6
-63.707973 -21.33466 353.2887 4
-73.462959 -20.704535 352.10641 6
-57.02821 -20.644342 354.39871 6
-80.483963 -21.640335 351.5267 5
-73.421539 -21.536493 352.37234 4
-63.860729 -21.455708 353.82922 4
-57.079689 -20.698349 354.77231 6
-63.518341 -20.648342 353.92612 6
-73.394547 -21.667143 352.98175 4
-64.405556 -21.551931 354.26389 4
-64.118797 -21.511793 354.08374 4
-57.149445 -20.751266 355.13943 6
-74.106049 -20.840441 352.69757 6
-63.6413 -20.702597 354.24936 6
-73.082626 -21.708094 353.2988 4
-72.843155 -21.74036 353.54141 4
-64.806931 -21.596533 354.46014 4
-57.839725 -20.821741 355.6521 6
-57.204418 -20.808876 355.53854 6
-63.988762 -20.794821 354.79062 6
-63.826317 -20.751469 354.5397 6
-58.221596 -20.812294 355.60367 6
-109.46762 -21.194313 348.50684 7
-61.289974 -20.316776 355.24576 7
-72.672676 -21.758705 353.68771 4
-72.387672 -21.770809 353.85092 4
-72.099648 -21.784853 354.01437 4
-65.53009 -21.704531 354.90982 4
-65.202507 -21.659246 354.72537 4
-57.267956 -20.868109 355.94138 6
-64.135437 -20.852612 355.13257 6
-61.83033 -20.326351 355.25146 7
-61.460636 -20.348146 355.47433 7
-60.779186 -20.368788 355.71854 7
-71.906815 -21.793737 354.12216 4
-71.713203 -21.804796 354.23187 4
-69.653648 -21.806866 354.80719 4
-69.22319 -21.797424 354.86115 4
-68.90239 -21.789436 354.89172 4
-68.57103 -21.782314 354.91901 4
-68.130417 -21.780685 354.98419 4
-67.646278 -21.768785 355.00372 4
-67.311119 -21.778381 355.08521 4
-66.97168 -21.790781 355.17618 4
-66.629379 -21.793846 355.22388 4
-65.736488 -21.740982 355.056 4
-73.684891 -21.448238 354.15701 5
-79.743889 -21.129309 353.17831 6
-61.886311 -20.300854 355.73593 7
-71.685265 -21.940235 354.83469 4
-65.912132 -21.847042 355.50272 4
-71.288612 -21.886337 354.72131 4
-70.830902 -21.865738 354.76666 4
-70.48822 -21.849157 354.78769 4
-70.12249 -21.826948 354.78381 4
-66.396271 -21.807095 355.29648 4
-66.159004 -21.821857 355.37561 4
-58.303589 -20.948494 356.52243 6
-57.958767 -20.948072 356.50989 6
-110.32799 -21.057972 349.45236 7
-73.791924 -21.599983 354.92697 5
-64.22934 -20.93774 356.25552 6
-64.238922 -21.531359 356.55734 5
-73.910667 -21.760443 355.73123 5
-83.887009 -21.704266 354.36887 6
-64.439186 -21.075806 357.10251 6
-64.401108 -21.672266 357.27274 5
-57.616447 -21.22121 358.31335 6
-74.648636 -21.296225 356.04648 6
-74.092369 -21.276691 356.12677 6
-73.960991 -21.899937 356.45468 5
-83.836502 -21.790318 355.03116 6
-57.707939 -21.286009 358.74399 6
-64.543404 -21.216793 357.98065 6
-64.789948 -21.855299 358.18616 5
-64.536156 -21.818636 358.01111 5
-57.78973 -21.36615 359.27304 6
-74.186378 -21.411139 356.96042 6
-73.971626 -22.032084 357.14581 5
-73.758743 -22.059298 357.36502 5
-65.321609 -21.918079 358.46201 5
-65.051003 -21.890905 358.34814 5
-58.869987 -21.385157 359.39603 6
-73.51757 -22.073811 357.52451 5
-73.282433 -22.092663 357.70605 5
-73.039734 -22.110218 357.87665 5
-72.763481 -22.108864 357.95636 5
-65.856102 -22.004408 358.8548 5
-65.586319 -21.961153 358.65826 5
-64.649437 -21.386999 359.03412 6
-57.86142 -21.454014 359.85349 6
-72.500023 -22.116007 358.07812 5
-66.12133 -22.075943 359.18814 5
-61.227497 -21.474323 359.89023 6
-60.859825 -21.479784 359.94501 6
-60.463348 -21.494755 360.05457 6
-72.246117 -22.231073 358.74658 5
-71.805298 -22.221954 358.82751 5
-71.445969 -22.205301 358.83759 5
-71.153015 -22.199144 358.88367 5
-70.688553 -22.163237 358.82101 5
-70.240791 -22.141338 358.81451 5
-69.952156 -22.137527 358.86285 5
-69.513565 -22.123541 358.88327 5
-69.107857 -22.118591 358.94522 5
-68.633377 -22.113829 359.00937 5
-68.183014 -22.104839 359.04355 5
-67.891373 -22.106731 359.09998 5
-67.450996 -22.118412 359.22977 5
-67.001366 -22.156027 359.48407 5
-66.695656 -22.173801 359.61496 5
-66.399109 -22.14502 359.50275 5
-84.014359 -22.198717 357.87033 6
-80.2388 -21.247187 358.30237 7
-83.827286 -22.235868 358.2337 6
-58.049774 -21.765621 361.87875 6
-79.879768 -21.313726 358.99771 7
-83.845383 -22.319717 358.80771 6
-79.60257 -21.327816 359.22479 7
-56.627556 -21.92993 362.96744 6
-74.656616 -21.968929 360.37943 6
-58.161392 -21.894583 362.71378 6
-83.777657 -22.386393 359.31409 6
-74.480232 -22.035227 360.86459 6
-58.315876 -21.992361 363.33954 6
-74.348129 -22.129646 361.51123 6
